# .PCD v0.7 - Point Cloud Data file format
VERSION 0.7
FIELDS x y z
SIZE 4 4 4
TYPE F F F
COUNT 1 1 1
WIDTH 1489
HEIGHT 1
VIEWPOINT 0 0 0 1 0 0 0
POINTS 1489
DATA ascii
13.684405 0.70233703 -0.73000008
0.84040046 4.3566642 -0.32700056
21.491467 -6.957036 0.27300066
8.1673813 -0.791803 1.7540929
20.567001 6.365581 1.1203331
-6.9130001 -4.4030399 -0.21996625
18.01441 5.8042679 -0.73000073
-1.2808857 3.1205218 -0.32700047
-0.62216163 -0.48429334 -0.32700014
-5.3824072 2.6688952 1.034189
-1.4893503 -3.1935446 -0.3269999
-4.6204352 -0.075918183 0.21399999
-6.4867206 -6.6127224 0.67300057
20.577423 2.4827857 -0.73000026
20.79232 -6.8545012 -0.3269991
-6.4443927 -7.5180001 -0.075199917
21.305042 4.2013459 1.1375718
4.6228113 -4.7756014 -0.32699999
10.189712 -2.2256966 0.075045839
13.275743 3.2617717 -0.32700014
8.4871264 -3.4139657 -0.237
20.563318 7.1422367 0.85350662
12.501795 0.64843935 0.27290004
-5.981822 -7.5 0.52802074
-1.88906 -2.0846803 -0.72999972
17.626791 -7.2319264 -0.32699925
21.307001 3.8954175 0.14047584
16.372705 4.4017706 -0.32700026
-3.159301 -5.7019506 -0.071916372
17.238489 -1.0854235 -0.72999984
10.051676 7.2232261 -0.32700089
6.5961199 6.5217776 -0.32700014
-1.2136754 5.7926779 -0.32700023
7.4246788 -0.47336373 -0.18967454
9.4135151 -4.0464172 -0.72999954
15.140215 -2.2596102 -0.32699963
-4.0211449 7.1605096 -0.10385416
7.4667568 -0.38874835 -0.1596763
-2.4042368 -6.0308189 -0.32699943
4.1851912 -3.2737417 -0.72999954
0.79289335 7.4809108 -0.32700098
-6.3983855 -5.1599989 0.6250425
6.9545002 4.0705695 -0.237
8.6535912 -5.3141661 -0.7299993
-5.2588816 -5.2335095 -0.72999936
-4.0211444 6.2420902 -0.031263508
8.8280258 -7.7676592 -0.72999907
-2.8333409 3.2611542 -0.32699996
21.736629 0.12049842 -0.32699996
-4.1864004 7.4656329 -0.73000091
-6.7530003 -6.8494864 1.2381787
-0.13117686 -4.96 0.35868347
7.4459476 -5.9790783 -0.72999924
14.441929 -7.6215534 -0.72999901
2.6976123 2.5720525 0.25943014
4.3199282 7.5 -0.30301008
9.7329254 -7.5606184 -0.72999907
19.462437 -5.2737145 0.39485946
3.3411212 -0.12986889 -0.32699999
8.0878763 -1.6370659 -0.72999978
20.348585 -0.7224555 -0.7299999
-6.623065 -2.3598268 -0.72999972
-5.1415195 2.7649348 0.28297454
10.694138 -0.36528814 -0.237
12.746159 -1.9867392 -0.10464714
19.830147 -0.47993109 0.8936069
12.929656 -1.8102145 -0.32699972
21.219715 6.8499994 0.35188106
3.8986864 -3.8448038 -0.72999954
16.754257 -6.0455656 -0.72999924
20.66037 -2.835001 0.64253634
13.045947 5.4225192 -0.73000067
16.754768 -3.7826474 -0.32699946
1.5619907 -7.370995 -0.17699903
-4.8603115 6.7451768 -0.32699999
15.302671 5.4476032 0.094847061
9.4544973 -1.5983324 -0.237
-2.7348454 -4.0188103 -0.32699984
-0.92195827 6.8237944 -0.32700041
-2.6711376 -5.5741534 0.0079902522
4.3057957 5.7712631 -0.25412712
3.5918951 -2.2179403 -0.3269999
21.13736 6.8499994 0.76151419
19.506584 6.010016 -0.32700065
17.947655 -4.5445728 -0.32699934
6.9708657 4.3039818 -0.237
16.369368 -3.3978353 -0.084303275
11.431508 1.7623296 -0.028707791
20.590763 5.6700001 -0.19075063
11.732405 -1.5122383 -0.32699978
-6.5175972 -3.349999 0.79722607
2.1420383 1.7908015 -0.7300002
17.122826 5.7992144 -0.32700059
-6.1393285 3.8900003 1.0905666
6.388607 5.6480742 -0.73000067
-3.159301 -5.5205903 -0.28570479
-3.3593011 -5.1790791 -0.22666655
9.138402 -0.5891763 -0.237
12.273315 2.5443208 -0.73000032
-6.9047556 -5.1269388 1.2030001
20.080139 -7.2506928 0.48539501
14.554989 3.6715631 -0.32699999
-6.5847659 -7.0134172 -0.72999913
-3.4207306 5.6305699 -0.32700077
15.132446 4.8803954 -0.73000062
10.740063 -1.1492801 -0.24557611
14.392477 -7.5 -0.047713269
3.6300969 -7.5595598 -0.72999907
-2.8930676 -5.2267218 -0.32699966
-3.1593008 -6.9868684 -0.030677596
9.9404373 1.4880052 0.074812442
7.2796984 1.1750071 -0.73000014
3.2815695 1.4605513 0.252
10.898868 -0.41117716 -0.237
-0.83721393 -3.877511 0.072999999
21.28706 6.306829 0.67299986
21.705698 5.6700001 1.1808298
19.025953 -7.8282938 -0.32699901
-5.2745171 -7.4894481 -0.070781901
-0.031849205 -4.4857559 -0.32699999
20.914219 4.3258958 0.77226919
18.170773 5.9530373 0.072999947
21.509476 6.8499994 1.5885701
21.367363 -3.8900011 0.78977954
-2.5757029 -3.5134163 -0.72999954
3.1199927 -4.3490934 -0.72999942
2.2428002 6.522809 -0.73000073
15.883916 -6.0104699 -0.32699928
18.996357 -5.728353 0.77300024
7.6485229 0.16970529 2.0494998
5.6915145 -1.8949709 -0.72999978
21.546921 -2.7558761 0.92866993
-6.7369499 1.2211971 -0.73000014
7.1768713 -0.38940233 -0.23700002
9.8802729 -5.7294254 -0.077988572
20.204441 -0.0042351503 0.24743624
9.5652142 -4.3006773 -0.32699999
2.6761661 -6.3600001 0.39956257
19.209652 5.1500006 -0.32699999
17.916487 5.5021696 -0.32700044
10.114943 -4.7644701 -0.72999942
-1.404695 3.0497718 -0.73000044
7.0914841 6.914813 -0.32700089
6.4037828 4.5292902 -0.73000056
-3.1593013 -5.6120987 0.32223603
-6.3762193 3.0960939 1.028
2.8418262 5.8588915 -0.32699999
12.886221 8 -0.50623375
-4.8834753 2.0018268 -0.32700044
16.347063 -8.000001 -0.35317957
7.4500141 7.5258231 -0.32700101
-6.5228128 -3.349999 0.22265323
11.916162 4.2894754 -0.32700032
20.412767 -2.7068174 0.74526751
19.462456 -4.8860841 -0.32699978
-0.87693596 -6.9680452 -0.32699913
-1.1102345 1.6700221 -0.32700035
11.411114 6.8492489 -0.17700039
9.9312668 -7.5180006 0.0014393851
10.821306 -1.0961151 -0.72999984
6.9460239 -1.702935 -0.237
7.1066399 2.8949113 -0.23700002
-4.2543278 -2.5556533 -0.72999966
14.883054 7.1443591 -0.32700092
2.5994172 -8 -0.57429314
8.8674898 7.0266948 0.11160009
21.461876 5.1599989 1.1562328
16.9711 4.1157265 -0.32700017
-6.0268607 -3.349999 0.29231617
13.568025 1.9033861 -0.32700005
11.666949 7.8947506 -0.73000097
-1.3416328 0.099730134 -0.73000002
16.345247 2.9175503 -0.32700008
-0.54874951 -6.5168972 0.073000461
8.2091684 -0.1264827 -0.014669823
21.513451 6.9279776 -0.32700056
18.158754 -3.5835307 -0.32699943
21.535 -1.5106888 -0.021641474
-2.4855788 1.2133988 -0.32700032
12.799438 3.6214683 -0.32700023
9.6583729 -4.8041029 0.067633569
9.5887766 -2.8659735 -0.19732642
4.6919847 -2.4921265 -0.72999972
1.4614182 -3.7408061 -0.32699978
16.292934 -3.5924282 -0.32699949
-6.7138996 -5.1599989 -0.2874909
20.282272 -1.9240422 -0.72999978
8.7388659 -6.8083334 -0.17699966
-5.7845163 2.775001 -0.040950075
20.762978 5.1599989 -0.11055116
0.38272762 5.8700347 -0.73000067
7.9637337 -5.7695856 -0.19393876
2.4150546 -6.0876446 -0.32700002
14.282957 -7.5 -0.075767197
-7.268775 -4.6602063 0.92228848
14.903214 -0.46240926 -0.32699981
5.6000051 2.4943738 -0.32700026
9.2556229 -0.11702342 -0.32699999
16.354994 4.8709126 -0.73000062
-3.6363978 -7.832274 -0.32699901
14.085947 -6.9887819 -0.72999918
-6.7529984 3.3108053 0.87519038
11.210894 -1.1540544 0.1877384
-2.5206718 -3.6931434 -0.72999948
11.154889 1.806016 -0.32700008
-6.7017756 -6.9899988 -0.13165161
5.4350681 -2.9065669 -0.32699978
-5.9894257 -1.5334038 -0.72999984
-1.576895 3.0528986 -0.14208004
-1.7270401 6.9121504 0.072999522
17.849846 -3.049263 -0.32699996
20.857573 6.2238612 0.65299958
5.9245071 0.13894576 -0.23699999
12.231169 5.2028666 0.069842964
-3.7082379 7.3174815 -0.2369969
-2.2376091 4.1846719 -0.32700062
19.393229 1.6600664 -0.73000014
7.2575741 0.13519096 -0.237
19.034468 -0.28673309 -0.32699999
18.688768 7.5 0.086429499
8.740078 0.51329452 -0.32699999
20.796801 -4.8469338 0.52543688
19.753046 -8.000001 -0.33608341
-6.554184 -3.349999 -0.10427138
7.7501364 -4.2926044 -0.72999942
-6.9829998 -0.79854035 -0.51504123
21.28731 5.1599989 0.056051061
-2.2759421 6.9167309 -0.73000079
20.257767 -4.5352831 -0.72999942
14.336434 -5.245666 -0.32298276
1.9511862 -6.5884919 -0.32699922
-5.6896362 5.8529425 -0.32699999
9.1055241 -2.9002402 -0.32699999
10.812279 0.77601993 0.38939947
-0.13744518 -6.3600998 -0.080230609
15.231304 -0.20313454 -0.72999996
-3.2593009 -4.0848413 0.056742787
17.219873 7.6735039 -0.32700101
2.796711 -3.226512 -0.7299996
-5.7402849 7.5180016 0.0079762638
4.12011 -2.4076471 -0.32699984
18.795843 7.0991616 -0.73000085
5.6323643 -3.935667 -0.72999954
-3.3381197 1.7357016 -0.32700041
20.761885 7.9696722 -0.32700101
4.6523376 1.8734832 -0.019746795
10.262714 -6.7099924 -0.72999913
-3.7082379 5.210886 0.077924907
19.238636 -1.2571092 -0.72999978
-0.75322437 -1.6935697 -0.72999972
21.306719 4.3323932 0.23246132
-4.2884026 -2.326575 -0.32700002
12.771543 6.3600998 -0.25331977
-5.7476826 5.3180623 0.0078159794
7.4395485 5.0555325 -0.32700044
5.7116008 2.192482 -0.237
12.464463 -2.8363147 -0.08882834
1.5732567 7.9482498 -0.32700101
7.5357203 -0.47195789 1.3135216
11.841822 5.8819818 -0.73000073
-6.4829998 -0.78953815 -0.053286031
7.5589042 0.41218668 1.6577775
7.5474701 -1.5226258 -0.237
12.496819 6.3599997 0.58236063
4.5983758 7.5180006 -0.22376813
12.698624 -1.1150175 0.39547423
18.064341 7.3788195 -0.32700098
-6.9829998 -1.1818018 -0.71594989
17.184481 7.3784103 -0.32700098
16.138672 5.8502102 0.072999984
11.215011 -4.411931 -0.32699949
7.269906 -0.2343704 2.0712783
16.873852 -2.8844595 -0.30281103
13.609442 7.0926404 -0.32700092
13.133759 7.5345764 -0.73000085
10.347342 -1.2411352 -0.32699999
18.293301 4.5166016 0.44765946
21.602024 7.5 0.31647882
5.4565477 -1.8912177 -0.32699999
0.40018004 -3.5220835 0.072999999
18.393299 6.5802717 0.064651683
-5.1329989 -7.1695404 -0.28202677
-3.7082372 4.2592392 -0.21397662
21.103992 6.9899988 0.12631299
10.188463 -0.87274647 -0.7299999
-4.767518 2.545953 -0.73000032
-0.24782467 -3.9926953 -0.72999948
2.4893684 2.1277573 -0.73000026
13.516817 0.13268757 -0.73000002
8.7026768 -6.193224 -0.32700002
6.5109997 -5.1716719 -0.72999936
-2.0028744 2.645031 -0.32700047
7.1694784 4.1852536 -0.7300005
-5.756506 -5.6700001 0.79764795
13.758332 -6.9859009 -0.32699943
4.179739 -7.351306 -0.32699907
-6.2363567 -6.4659276 -0.32699937
6.9102736 0.602485 2.1224489
12.601888 -4.0101137 -0.32699952
-4.4179611 -0.21110031 0.28067455
4.8107948 2.6226063 -0.32700032
-4.7114687 -0.18013149 -0.72999996
5.9655643 6.1887517 -0.32699999
-0.050623894 5.7367406 -0.32700068
19.514791 -2.3142562 -0.72999966
-2.0900609 -5.8098087 -0.3269994
-1.099956 -4.7608089 -0.72999942
4.8815236 2.64449 0.40799999
2.4020791 1.3357037 0.213
-5.7310777 3.8899999 1.2878571
18.997025 -2.6651711 -0.72999966
-4.8647733 0.39165872 -0.046082515
3.8909278 2.3446486 -0.32700029
0.29409468 -8 -0.65485287
-5.4719238 3.8889999 0.099369906
3.9257932 7.2674384 -0.73000085
-4.0954227 5.7494459 0.48539379
-3.8494196 6.2024388 0.28766233
20.374756 1.4415123 -0.7300002
20.106295 4.9831858 -0.32700038
12.75717 -0.9175024 -0.7299999
5.8506079 -5.4582376 -0.32699949
7.7215271 -7.5180006 -0.15737955
9.8023272 8 -0.54291177
-5.5445185 0.81971312 -0.73000008
-6.500999 -1.6455969 -0.32118028
9.0384712 -5.0251331 -0.72999936
3.2703247 3.1285615 0.34698057
-5.4888983 -5.7548571 0.63214803
-6.7000313 -3.3987374 -0.72999954
15.59943 2.0108569 -0.73000026
2.601459 -0.27047816 0.213
21.063559 6.849999 1.5266136
18.137129 -4.7434211 -0.32699934
3.2812791 5.4107924 -0.30135038
12.596378 0.62028646 -0.32699993
17.813477 7.5 -0.039559558
20.954885 6.4460821 1.8929999
11.766788 2.0347359 0.098039627
6.9471645 0.95223224 -0.058713354
20.465605 -3.7568412 -0.72999954
11.191219 2.0832615 -0.32699999
12.999958 5.5630045 0.52499962
7.9330926 -2.4885604 -0.32699975
-5.9980001 3.7368865 0.97025609
-1.4168632 6.3346624 -0.32700077
-5.9415674 2.8930001 1.2366139
11.335368 6.9842939 -0.73000085
21.245947 -7.0782061 -0.3269991
-0.36330098 -6.9455075 -0.12374226
21.347446 5.1162028 -0.32700044
0.93741125 -7.2796969 -0.17699912
-3.1960618 0.97838008 -0.73000014
20.158493 -2.9554687 -0.32699943
3.0092649 0.45039952 0.21299998
9.3388729 -4.5382786 -0.72999942
-0.28577662 5.7034898 -0.73000062
4.7062335 0.76283199 -0.23700002
-5.1816645 2.4635015 -0.3270005
-1.7216872 6.4202523 -0.3270008
6.8228359 0.79500282 0.69130397
8.7178688 -0.76158339 -0.18844205
-4.6766605 7.5180011 -0.035550684
4.5664802 4.9799752 0.15431435
6.4552908 6.3439217 -0.32699999
5.7096624 1.2150073 -0.32699999
-0.22068024 -0.2937479 -0.72999996
11.997391 6.7201033 -0.32700032
-2.2504458 7.5 -0.16952474
4.3116875 4.7794991 0.40799996
21.285727 -5.8102498 0.83154124
-3.2593009 -4.4226913 0.20651452
14.437823 4.96 0.57076764
6.9935064 -3.6927218 -0.32699999
22.016998 4.5118074 -0.68981725
20.583969 -7.3058176 0.080548465
-3.9506276 2.3839159 -0.32700044
-1.9557863 -3.5026376 -0.31947857
3.0893409 1.0321903 -0.32699996
11.121236 -7.5902138 -0.72999913
6.6611023 -1.1993847 -0.32699999
19.576717 -7.5 -0.074169621
-6.7389407 -3.483439 -0.7299996
0.98782682 -1.3955829 -0.72999978
6.4290166 -1.2223351 -0.23699999
-6.500999 2.5421972 -0.005165264
9.4308157 -6.5410805 -0.32699981
19.231453 2.1323297 -0.32699993
7.7538366 -3.3930008 -0.32699966
-0.50587004 4.2670922 0.1428625
11.526235 0.79365134 -0.73000014
20.369143 6.3757882 -0.32700074
-6.4211731 6.7671728 0.83153999
-6.4473619 -5.809999 0.0078737438
7.1270552 4.7761683 -0.73000062
0.50222778 -0.50454903 -0.7299999
18.475718 -3.4381568 -0.32699943
20.746237 -3.6782775 -0.72999954
-5.4970212 -5.6932974 -0.32699946
14.507688 -7.2837338 -0.32699919
10.705799 -0.64895505 -0.32699999
19.055145 -4.8170118 -0.17119321
-3.2593012 -6.342299 -0.16863275
16.072054 2.8589685 -0.24146761
14.563824 -7.9240284 -0.32699901
21.660618 6.2671385 1.893
15.119433 -5.659482 -0.72999924
-0.57906121 7.3870544 -0.32700098
8.6497517 -1.0857202 -0.237
-4.6317534 0.82244992 -0.73000014
-1.0951381 -5.8512979 -0.3269994
18.293301 5.5551867 -0.032015204
-0.86973751 -7.3745408 -0.32699901
-0.83424568 -4.8922281 -0.32699963
-6.071528 5.4816155 0.042580269
4.808547 -7.8548484 -0.32699901
10.833567 4.6904573 -0.32700035
13.555962 4.8099995 0.26165795
6.4732938 1.6960244 -0.32699999
17.9627 -7.9160476 -0.32699901
5.2121649 -2.19028 0.14497826
10.781521 -6.4725499 -0.32699925
-4.0294046 -4.7885141 -0.32699966
11.994708 -2.0813513 -0.32699972
-3.2593009 -4.3294268 -0.16145432
14.341994 6.4011936 -0.73000079
17.016907 6.4416389 -0.32700068
7.9474263 0.42885017 -0.73000002
20.977062 2.0927663 -0.3269999
4.8309412 -4.9669943 0.47261238
7.9673524 4.393919 -0.32700044
12.841182 -7.2811718 -0.17699912
-5.9549727 -6.849999 0.49204254
4.4020281 -7.0306473 -0.72999913
0.51267004 1.3688939 -0.7300002
8.0014925 -0.55438471 -0.054666243
4.7320967 -6.9105473 -0.17699954
17.175606 -2.2764916 -0.72999966
21.251595 -6.7572756 -0.72999913
20.049932 -7.0480089 -0.72999913
6.3893318 -7.5180006 -0.30084106
-1.098783 4.0794868 0.072999999
7.2100563 1.7812157 -0.32699999
-2.7767658 8.000001 -0.41520262
-2.2896805 -4.16221 -0.32699993
11.641934 5.0625615 -0.73000062
-4.8682947 5.7032456 -0.32700002
-3.7916965 6.8159604 -0.3270008
-5.3013678 -7.5 -0.24709021
8.1073341 -0.72751296 2.0868106
20.916258 -3.2565179 1.2789273
-6.0386257 -5.6700006 1.039426
8.2687874 -0.90310735 0.012793765
18.046423 -5.6837745 -0.32699925
21.770702 3.4640217 -0.32699999
20.848347 -6.8108912 0.17803192
2.6045132 -1.3514855 -0.72999978
-6.0461245 -6.9899988 0.493765
16.462015 5.0339766 -0.73000062
13.99154 -7.9163446 -0.72999901
18.516508 7.7021389 -0.73000097
14.286431 4.1013913 -0.32700023
-3.2593009 -5.4873533 0.48808968
13.385968 5.5232258 0.52499956
-3.7082379 4.7286921 0.10026077
5.2850056 -8 -0.62903261
-0.26742238 -7.5001001 -0.0048471577
1.0939153 -3.1343818 -0.30125836
-1.8744863 -6.4103937 0.073000342
13.029479 4.8099999 -0.14683846
-4.4906893 -0.082758054 0.54975814
-2.744719 6.2743001 -0.32700056
6.6125669 0.66080642 -0.73000008
19.680136 -7.5000005 0.082929477
7.6631498 0.13338746 -0.32699999
20.579018 -5.3142076 -0.32699922
-0.62512255 7.7828445 -0.73000097
-2.0144072 7.7865696 -0.32700101
5.6981635 -1.9864663 -0.237
10.810485 -3.1661229 0.273
-2.6439836 4.9242563 -0.73000056
6.4306583 -2.0811346 -0.32699984
-5.1204023 4.7246737 -0.11832933
4.7533979 -2.0685372 -0.32699999
9.6428986 -3.8651886 -0.72999954
15.860766 6.7969236 0.072999388
2.2389653 6.5389032 -0.17700008
21.552677 6.2819023 0.67299968
15.916488 -3.5381486 -0.089090101
-2.649394 -2.1494174 -0.72999978
18.393301 6.0575433 0.67513502
21.640934 1.9555433 -0.32700002
15.081286 7.1855993 -0.32700074
13.745232 -5.4279604 -0.29910138
0.46668541 8.000001 -0.40688255
0.75960863 5.7196898 -0.29342359
4.361166 2.6865363 -0.32700032
-3.3593011 -6.165575 0.18169762
17.947609 -7.6363792 -0.72999901
18.219957 7.0023971 0.57094681
-5.6624875 3.8585825 1.1629568
8.495326 -0.6876508 0.14688891
21.535 -3.1564898 -0.10072255
13.637615 5.496418 0.47925538
-5.3017597 3.7918794 0.87308335
2.3836253 1.993902 -0.32699999
7.3172169 -0.70916343 -0.32700002
-5.5425472 -1.6714396 -0.32700011
-4.27214 5.4183998 0.77299988
-5.4829998 -3.6406121 -0.32461151
-6.1311955 6.5802488 0.19299971
18.938559 -6.5089741 -0.32699916
6.4896526 -7.5 -0.17693906
9.6595383 1.9802356 -0.73000026
0.49614769 -7.0966177 -0.1572876
7.3976288 0.56909108 1.5936707
11.561859 7.4557247 -0.32700101
5.9462695 0.12847459 -0.32700005
5.9437332 -3.5546989 -0.72999954
-6.2241621 3.2244883 1.0017545
20.320719 5.52876 0.42931455
5.2373376 -6.8813496 -0.1057162
-3.934108 6.728559 0.83154005
7.7492895 -0.68271619 2.4202354
6.2562399 2.9691305 -0.73000038
17.086096 0.27182889 -0.73000008
-4.6191998 -0.36040914 -0.3270002
-0.47245196 5.876327 0.072999999
11.841682 -4.1404552 -0.32699952
-1.8119605 1.7824273 -0.7300002
4.5557976 7.0808911 -0.32700062
16.176247 -3.8517351 0.049248837
10.714621 -5.9456835 -0.72999924
-1.9164121 -4.6037798 -0.32699969
0.30079535 -6.8946457 -0.32699955
-6.7705708 -4.3969693 0.40152586
-3.5420225 1.7700071 -0.32700044
17.429193 0.25653553 -0.73000002
-3.2711983 6.6644654 0.07299979
-3.2359703 3.7386379 -0.73000044
17.151224 -3.2403193 -0.17328858
7.6581659 2.8993483 -0.73000026
-5.8830175 -5.6700001 1.0139937
-1.8983537 3.8549156 -0.32700059
7.9041052 0.85698509 -0.32699999
-4.731791 -0.47897768 -0.014473505
-1.559301 -5.4807391 0.098253056
8.1623745 1.6271162 -0.23699999
-0.15713258 6.0210886 0.072999999
21.246885 5.809999 0.34913632
13.294695 -6.9298563 -0.17699949
12.742929 -0.99192369 0.213
4.1919937 -2.414156 -0.72999966
2.8060846 -7.8868303 -0.32699901
5.1452332 -0.34809065 -0.72999996
-3.8386121 5.0929747 -0.32700032
21.065294 4.9308486 -0.73000062
21.061596 -4.0063391 -0.72999954
7.533145 1.5729651 -0.32700014
13.063186 -0.59292889 -0.7299999
12.713675 -1.7343364 0.40799999
21.228252 -2.795001 0.80152118
-1.0459282 7.0929718 -0.32700092
15.81382 -3.4590826 -0.32699952
21.651394 1.28491 -0.73000014
9.788866 7.9596415 -0.32700098
18.293301 4.247366 0.097471461
14.395424 6.8812571 -0.17700045
7.2000418 0.78506297 2.1426139
12.397646 6.1350002 -0.31411532
-2.7930851 -5.8058887 -0.32699943
-6.6375756 -2.0530412 -0.32700005
14.40369 5.5977507 0.30439273
-5.6675696 5.0531201 -0.095606439
14.731174 7.5180001 -0.18551415
2.5262771 -4.2905827 -0.32699972
12.944355 5.0631685 -0.32699999
-3.3967414 0.91955394 -0.73000014
-2.5434506 -2.6178875 -0.72999966
18.405495 6.104744 -0.32700068
-0.94734693 -5.7532978 -0.7299993
-1.704602 -5.6904268 0.208
21.787001 6.7918692 0.81756383
20.831003 6.4572163 1.8930001
-5.1562147 0.5982123 -0.127
17.141146 3.7469282 -0.73000044
9.1280127 -7.5 -0.081576586
-1.0622464 -0.0084555149 -0.32710001
20.418093 -2.6600013 1.0251575
13.154505 -3.6162167 -0.72999954
13.099423 -4.8090353 -0.32699943
4.0637083 -7.5180006 0.072530851
21.538647 -2.795001 0.37260911
19.849583 0.0051975278 0.15000001
21.410461 -5.1615367 -0.32699966
5.0050988 -0.49891901 -0.7299999
3.7579491 0.025783077 -0.32699999
11.490364 0.9520514 -0.73000002
21.535 2.6554008 -0.055883244
14.323304 6.1052842 -0.32700068
-5.7230101 -5.9099989 0.55195034
10.377198 4.5873623 -0.73000056
12.996688 1.2571907 -0.73000014
12.040666 1.8004477 -0.73000014
21.424698 2.0292816 -0.32699987
12.326328 7.2704268 -0.32700095
15.9119 -4.4494371 0.072999999
15.800677 7.2850089 -0.32700095
3.5180039 -5.9665279 -0.32699937
-1.8984374 -7.2397337 -0.72999907
7.588552 -7.0900211 -0.3269994
-4.5962467 5.7146673 0.48539379
11.059852 2.2257571 -0.73000026
-3.0732074 5.3040667 -0.32700044
18.393303 3.8103886 -0.18459031
14.865517 3.222012 0.15915348
-5.2886381 0.5390709 -0.73000008
4.2589169 2.1589899 -0.73000026
2.5480444 7.5180001 0.052111879
20.552881 5.0791817 0.51034081
20.572266 -6.3487773 -0.32699937
18.47337 -7.5180011 -0.26582307
15.014263 1.4131727 -0.73000014
18.675692 5.9455471 -0.73000073
4.869173 4.3721671 -0.32700047
-6.018106 3.9954638 -0.32700068
3.0194261 -4.1475744 -0.72999942
2.8012946 2.8537931 0.273
19.507315 6.5034485 -0.73000073
19.492838 -0.0042153625 0.41979057
-0.53140569 -4.9906225 0.072999999
15.588728 -5.3268633 -0.72999936
-2.3979521 -4.1126094 -0.30267036
17.477983 -7.9103751 -0.32699901
17.668793 -3.7931104 -0.72999954
-3.5336955 4.2066073 -0.32700026
11.847048 0.6927141 -0.32699996
-1.3328403 -3.491755 0.072999999
-6.7193789 -5.809999 1.510443
-3.7082379 4.8606977 0.10639718
-5.7284174 6.8451347 0.42378119
-3.0391672 7.3778648 0.072999023
-2.2594206 3.5746241 -0.73000044
6.5225563 -1.1763607 -0.237
-4.8248057 0.18733515 0.92958343
21.403328 6.7152739 -0.73000085
11.624104 7.3462734 -0.32700092
13.810966 -3.7403517 -0.72999954
2.0587835 2.2830174 -0.73000026
5.254941 3.8400946 -0.7300005
11.89503 -0.45136321 -0.237
11.583706 6.4236307 -0.1771
1.674943 -4.1671128 -0.32699999
13.222231 -6.2194333 -0.32699931
1.3647928 -1.6302991 -0.72999978
17.696798 2.2457881 -0.32699996
18.393301 7.4971004 0.53759694
8.083807 -6.217308 -0.72999924
14.626722 -5.2642522 -0.32054788
19.910635 7.2427826 -0.73000085
18.697758 -5.6583805 -0.3269994
-5.9131646 -6.3899989 0.58814448
19.999052 -2.268271 -0.72999978
3.105092 7.5180006 -0.27307671
-6.500999 5.8465891 0.06963075
6.8769712 1.4777236 -0.32700014
18.742237 -5.2161283 0.12049595
18.992201 -5.9879665 0.42378199
-5.3150263 -4.7198262 -0.72999942
17.467804 -7.5151367 -0.72999907
21.522039 0.48700225 0.12000026
11.618145 2.3776195 -6.3657761e-05
-7.1895323 -4.1996078 -0.0165
-6.889792 6.1298037 -0.73000073
15.665543 6.4711494 0.072999574
10.907372 0.51208192 -0.32699999
-3.2593009 -6.136776 0.096278295
-5.9980717 2.5039692 -0.73000026
-2.7849021 -2.2645621 -0.32700002
22.016998 3.8617389 -0.52478778
1.2988154 -6.1931767 0.4567298
-4.8811998 4.7021861 -0.12309279
10.854032 -4.3363519 -0.32699949
17.22677 2.1561255 -0.32699999
3.068594 -1.5424476 -0.32699996
7.7817717 1.6310935 -0.7300002
6.4205437 0.075732529 -0.32700005
-3.1593013 -7.3834105 0.424393
4.1446042 -6.2888484 -0.32699931
-0.16967058 6.4264388 -0.32700023
0.24054003 -7.5180006 -0.056756906
8.056119 7.5 0.096635565
9.051033 -4.3351026 -0.32699999
-4.7495008 -0.14520405 0.73435676
7.6746383 -1.985096 -0.72999978
-4.5968308 6.5497923 -0.32700071
0.67107785 5.942966 -0.32699999
-5.8052597 4.3202667 -0.32700071
11.008208 -1.260161 -0.0020423066
11.158413 -3.6628301 -0.32699955
17.059418 7.531744 -0.73000091
20.74826 -6.2337856 -0.32699943
16.046751 3.1556702 0.208
13.276831 -1.6440067 -0.32699972
9.5694695 -3.7696488 0.25150517
19.299591 -7.2684708 0.44510314
-4.5194836 6.9890718 -0.32700056
13.917529 -6.9560609 -0.17993318
9.8416328 -1.2708168 -0.23699999
15.175951 6.8242941 0.013688832
9.0649204 -3.1320801 -0.7299996
-5.6779723 3.670001 -0.17517844
-4.7456465 -4.036726 -0.72999948
-2.0871794 -4.8775034 -0.14008701
-4.1530294 -1.1481723 -0.32700014
3.4950991 4.3193431 -0.32700047
4.7588892 4.491806 -0.73000056
7.8832774 -6.3522263 -0.32699999
19.934124 -5.1222649 0.42378205
21.516998 -0.68496466 -0.12236744
0.50372648 5.0948725 -0.73000062
3.8354712 -0.075728059 0.28409439
3.3555298 2.7149231 -0.32699999
8.3914223 -0.84667563 0.46266046
19.161499 -7.5180011 -0.0055668205
12.754311 7.0609159 -0.73000085
11.210183 -3.4347281 0.273
18.896103 2.1943309 -0.32699996
5.1885147 -6.5317726 -0.32699925
-4.5264931 -6.7286673 -0.72999913
6.5241308 7.4323902 -0.32700098
20.04628 -5.6694145 -0.7299993
1.5374093 4.1504683 -0.7300005
10.280512 -4.2828307 -0.32699999
12.464441 -2.5623443 -0.2666705
-6.6278629 -6.2087984 0.65300035
22.036629 4.813868 0.34781265
-6.3866014 -6.8499994 -0.2032363
21.164331 4.1993504 1.0955746
19.705324 -5.9931374 0.48539439
18.977695 -6.9569392 0.27300066
14.00106 -1.4383574 -0.72999978
3.1481757 -2.7624893 -0.72999966
9.6874876 6.9124942 -0.072338983
11.412767 2.2204418 -0.32699999
21.373505 -5.2816343 -0.32699922
-3.7868404 3.4490383 -0.73000044
-6.3317127 -5.6700001 1.2108731
22.017002 -5.7923384 -0.40065134
7.0851407 1.2663772 -0.32700014
-5.6740427 -7.9792967 -0.72999901
6.6189752 0.81854522 -0.071139708
7.8734651 1.5103421 -0.32700014
8.8810635 -5.4180613 -0.32699949
12.696325 -0.30930769 0.21300001
-6.6913648 -4.6425066 0.23800001
21.670475 -3.6950009 -0.29984808
13.634295 4.8099995 -0.23308189
17.675999 4.6778336 -0.32700032
13.8976 4.2306619 0.072899997
6.9847856 -1.2297088 -0.237
-1.186553 6.833631 -0.32700086
11.546114 0.16412838 -0.076509774
11.660368 -7.1758919 -0.17699923
16.381985 -2.9274163 -0.092357442
14.929085 5.8101134 0.18109618
-6.2759399 -6.9899988 1.3294959
4.1334009 5.4490633 -0.29633671
6.2830677 -6.8584995 -0.32699955
10.162359 4.8658533 0.91577572
12.808297 0.65877479 0.213
20.034298 -4.6551943 -0.32699987
3.5408368 -7.3691521 -0.17699905
6.7886229 0.24742979 -0.11116101
-6.3655515 6.6540174 0.27299953
9.0395155 2.3421874 -0.23700002
8.0771132 -0.70153475 2.0766854
4.8232336 -4.9964938 0.74223441
0.91824847 -3.7613101 0.072999999
18.080759 0.059981585 -0.32699978
3.0042071 -1.9138825 -0.31971592
-2.4632401 6.8379073 -0.32700068
20.668825 -7.5 0.012149207
21.535 -3.0228672 0.10498253
-6.6367331 -6.688026 0.67300075
-5.4365005 4.969944 0.831541
-3.1593013 -6.3584337 -0.015037894
12.385046 8 -0.62789816
14.158154 -0.89761186 -0.32699978
-5.0414743 5.1329188 -0.32700077
18.069698 -6.0166636 -0.32699943
12.950409 -5.2298594 -0.32699999
-1.4197557 4.382225 -0.32699999
5.1583781 -3.1864567 -0.7299996
-4.3268299 7.5180016 -0.16477534
20.747437 -6.8477011 0.77300078
7.2718663 -0.20270801 2.2601335
8.7034979 -5.859458 -0.7299993
11.6075 7.5179996 0.077427089
-1.2954721 4.2341743 -0.32700002
4.6016626 -0.94880992 -0.32699996
7.9868169 -0.50314873 -0.23700002
-5.1183443 3.7756867 0.13543339
-0.013787985 5.5515695 -0.32700068
19.642849 2.8020747 -0.73000032
-2.4503427 -1.5303822 -0.72999984
14.828903 -7.495409 -0.32699901
8.9628353 -7.4287639 -0.32699907
8.8712559 7.6895776 -0.73000097
21.639706 5.6700001 -0.13235247
-0.03348434 3.0973375 -0.32700047
8.9519444 4.0126152 -0.32700032
-5.6861038 -3.349999 -0.14037652
10.008511 0.88284302 -0.73000014
-4.8319883 -0.41205913 -0.066300154
5.3068767 -4.3208475 -0.72999942
8.4930172 -3.3025985 -0.23700002
8.6518021 0.59542143 -0.237
-3.9245481 -5.5796599 -0.32699949
8.9031658 8 -0.48225713
12.50827 -2.3265381 -0.18626292
13.994452 -5.542366 -0.28411376
5.9155817 7.4220495 -0.73000085
19.393694 -2.8979707 -0.72999966
2.2264013 3.5133557 -0.73000038
-2.5818496 -3.1006675 -0.72999966
6.8164711 5.9281464 -0.32699999
-3.8405337 -4.1088114 -0.32699981
16.027681 -3.9877925 -0.32699999
3.8285818 4.2272835 -0.7300005
21.204094 -7.0620699 0.12452232
-6.4902458 3.061269 -0.12199999
7.5827451 -8 -0.55599672
15.883121 7.998014 -0.73000097
16.682432 1.6722834 -0.73000014
12.065915 -0.27277261 0.047177382
-6.2729998 -3.8669114 -0.10644631
7.9805546 -3.3997955 -0.32699966
18.135889 -3.7242203 -0.32699943
-4.1034632 -0.16036022 -0.32700026
-5.6606407 -4.2844267 0.69280916
15.568458 5.0793066 0.072999999
7.5754466 -0.49422601 1.7995796
18.460382 -5.3724794 -0.32699928
9.5045004 -0.33047724 -0.32699993
7.5141287 -0.44097707 1.6843448
15.357159 5.6820874 -0.73000067
5.0952497 -6.8387594 -0.14915676
0.59618104 7.4443598 0.072999001
20.146412 0.24113822 -0.72999996
7.9778156 7.3842459 -0.73000085
-6.2614212 3.3055797 -0.73000044
-1.9526223 4.0873637 0.072999999
22.017 -1.7816434 -0.48878741
-2.1696687 -6.771699 -0.72999913
-3.8579144 7.4583182 -0.73000085
21.604471 -7.3837938 -0.72999907
20.010065 -5.3233018 0.485394
16.800968 5.8297606 -0.32700062
10.205388 2.6467113 -0.32700014
15.488351 -7.2111816 0.073000796
22.017 3.9875846 -0.66694695
8.980505 -4.042347 -0.72999948
-2.1728592 3.8541605 -0.32699999
8.7058325 5.6564207 -0.32700056
0.23461556 -0.10808456 -0.32700017
3.8472567 -0.10703403 -0.32700005
7.6232858 -5.1610198 -0.32699952
11.857627 0.43237928 -0.26365167
7.7645388 0.25578499 -0.73000002
19.955708 -5.1515546 0.77300012
3.7961006 -2.4114571 -0.32699984
0.16285944 7.378736 -0.73000091
-5.3618126 6.6548333 0.19299966
20.305582 -6.3739233 0.48539469
9.6639824 0.47328043 -0.32700002
-2.2159052 -0.11234927 -0.73000002
19.674393 -5.8128071 0.11297724
-3.7082381 6.8075719 0.23908985
-6.6860132 3.1599205 -0.73000038
-0.19360781 2.2566862 -0.73000026
4.2966108 1.1556531 -0.25123882
19.607389 7.2715793 -0.73000091
-1.6441197 6.2751007 -0.73000079
6.2524285 6.1579027 -0.73000073
18.694988 2.3064923 -0.32699996
0.6037879 -6.5006447 -0.72999913
15.865602 -7.5 -0.29993835
-6.6230168 0.26370215 -0.32700032
17.681002 6.0274725 0.072999902
16.457203 -1.2135539 -0.32699969
7.5922894 -0.22827289 1.9919999
10.732704 -1.6607929 0.3300423
-6.1159377 7.5180006 -0.10019159
4.5639124 0.94775367 -0.73000014
-5.513 -6.8345947 0.78430259
17.633457 7.6074471 -0.73000091
21.236626 5.6700001 1.1327925
3.9295888 4.3317928 -0.28247285
8.6045952 -1.3259699 -0.32699999
18.661283 -7.5180011 -0.31649256
-0.31136853 -6.3599997 -0.24538673
19.776859 -0.30527902 0.86832273
-0.70320129 7.5180006 0.00015424937
13.957785 0.47482467 -0.73000002
7.8953719 2.5094495 -0.237
8.6195087 1.1810035 -0.32699999
1.0889754 -4.3091722 -0.32699972
-4.0503111 6.9625235 0.77299899
22.154999 4.1536345 -0.025821257
14.091402 -7.0424066 -0.044683479
2.1279724 -1.0956365 -0.32700002
16.599445 -1.8146181 -0.72999978
13.15946 -4.9823551 -0.7299993
5.5315247 5.2341361 -0.32700053
4.7006269 -5.0678959 1.2118516
-5.2432384 7.1663737 -0.32700095
20.567001 6.2696018 1.5495681
-6.6112647 -5.809999 1.7672725
21.767 5.581315 1.3204747
14.891411 -6.3010473 -0.32699925
7.2117219 -0.13065884 0.055
10.558642 -0.58381605 -0.3269999
6.2998447 5.4505596 -0.27776352
11.783759 -7.1223364 -0.72999907
3.9256659 -0.19606335 -0.30669856
21.787254 1.5350904 -0.32700023
19.698204 5.4532404 -0.32700053
7.070888 1.2643538 -0.32699996
20.384727 -4.5703259 -0.32699931
18.244177 6.6017647 0.63766688
3.2947412 0.074916661 -0.32699999
21.436424 -7.2732878 -0.72999913
-6.2139549 3.6742082 -0.32699999
12.088965 3.8920555 -0.32700026
10.493879 -1.7325344 0.0037471652
20.497332 -5.3041573 0.485394
-4.7940083 4.1069074 -0.32700068
8.917161 -0.64140159 -0.32699999
-3.7082379 6.0422945 0.039205626
10.661808 -3.6860476 0.273
18.011757 -7.2292972 0.073000818
-6.4808149 1.7564688 -0.32700047
-2.563318 -0.5262655 -0.32700014
21.767 5.2585039 0.65394038
19.173136 -2.9626899 -0.72999954
6.4135132 -0.85847598 -0.237
4.5286803 -3.3382416 -0.72999954
16.407318 7.9241686 -0.73000097
9.1653214 -5.3988848 -0.72999936
5.0356703 2.7970264 -0.32700032
12.001125 7.1867428 -0.73000085
1.5596714 -8 -0.34816027
-5.4479713 -8 -0.43400237
0.46010676 5.7099271 -0.32699999
-5.2326899 -3.2112043 -0.32699999
6.5278845 0.63186759 -0.23699999
2.5037944 -0.64712536 -0.32699999
20.643759 -7.5215702 0.83154202
21.291409 -6.9331732 0.70299208
1.8399491 -0.2224381 -0.73000002
8.3383379 -0.66358525 -0.13179445
12.214225 0.39355153 0.257
20.908573 5.809999 0.91019374
8.872982 -5.3378305 -0.7299993
13.897867 5.9809055 -0.73000073
19.708227 6.5778832 -0.3270008
-5.3589611 3.8408608 1.0142035
-5.3738384 3.8889999 0.13889149
20.477448 -3.545001 -0.22280332
2.616523 1.6797369 0.213
21.609976 -2.9796491 0.91499996
4.5221505 -1.3427027 -0.32699996
5.8558197 7.5180006 -0.16631499
0.11554432 -4.0013137 -0.72999942
17.043869 -6.6354184 0.073000185
10.632598 6.0539289 -0.73000073
21.153181 1.9522545 -0.73000026
11.549433 2.8143811 -0.73000038
1.3706338 -4.8099995 -0.28552651
7.9060183 4.8937273 -0.32700044
-6.2157111 6.5092783 0.77299923
-2.6327178 0.91115975 -0.32700032
21.423002 7.5 1.2289727
4.2440281 -5.1674156 -0.7299993
15.808111 -0.42658758 -0.72999996
-6.6775236 3.9260607 -0.32700065
7.4821978 -0.40418899 -0.1503018
-6.9829998 5.4293203 -0.60903001
3.5738277 7.8733473 -0.73000097
20.532124 6.9899988 0.79138923
-3.3723655 2.4692917 -0.32700047
21.070095 -5.8643808 0.12393975
-1.6459429 3.4095392 -0.3270005
8.4688902 -1.5787994 -0.32700002
12.637321 -7.176651 -0.32699907
13.684776 3.9569135 -0.041713871
8.1065702 8 -0.36363676
19.699385 0.28158385 0.31805345
11.198671 -0.8175292 0.27107129
-5.9420052 -4.2880621 -0.32700002
-0.39295068 -4.4311185 -0.32699999
8.1529293 3.3302054 -0.32699999
16.049683 7.1389341 -0.32700092
21.803532 0.64341116 -0.32700011
-5.5724778 3.8900003 -0.11686582
15.106041 5.657599 0.1422424
-6.0329943 -6.9899988 0.22936335
2.1854641 0.013837546 0.26375088
4.9321527 -6.1627164 -0.32699934
12.955382 1.9791336 -0.73000026
3.9529026 8 -0.69519687
4.5477171 -7.3994918 -0.32699901
15.957103 -3.6530352 -0.32699949
0.037425518 -7.5180001 0.11325355
0.024466038 3.457571 -0.73000044
20.551277 -2.6728199 -0.32699999
14.598917 7.6323004 -0.32700101
21.717581 5.809999 1.8898398
11.37594 1.9805949 -0.32699996
0.41593933 -6.1060309 -0.32699931
-0.60413122 0.37256622 -0.73000008
15.084964 3.8506753 0.072999999
-3.1593013 -5.1197557 0.21904407
6.749548 -1.578625 -0.3269999
-6.3934703 6.2206116 -0.32700086
22.024418 4.0384221 -0.19099998
6.6428366 1.0882885 -0.18281542
6.2488213 5.4560184 -0.32700053
5.6136618 0.17876528 -0.32700002
8.1225767 -0.74275494 2.2049398
21.02264 7.5080929 0.11999899
5.3665113 6.1227307 -0.31391186
-4.2353969 7.2382774 0.69344115
-5.1077776 7.4533539 -0.32700098
12.193703 7.2603121 -0.17700085
11.24646 7.09692 -0.32700065
10.674001 -1.7220535 -0.72999978
3.2449408 3.3538499 -0.26871163
4.0706344 -7.5179996 0.0026361272
13.228418 -1.3420467 -0.72999984
20.685608 -5.2914677 -0.32699966
-4.3167911 5.1873441 -0.32700026
18.108677 -6.8090854 0.073000371
4.347568 6.2892299 -0.18627129
-2.4344926 6.5665951 0.072999887
19.273916 -6.9377851 0.42378214
11.183681 -7.2152014 -0.72999907
9.6544476 -3.1163211 0.29956457
3.9916236 5.9018817 -0.32700059
11.889822 1.8522615 0.10224935
-1.9408994 3.85444 -0.32700056
2.7343173 3.3312001 -0.73000044
2.2912135 -0.13195871 -0.30763426
21.774 -2.9897804 0.87765527
5.8972983 -6.2746172 -0.72999918
21.529974 5.809999 1.1932439
10.350642 6.6263089 -0.32700017
4.7226634 -7.2202673 -0.32699907
5.2509098 -0.27660745 -0.32699999
20.787216 -4.5264988 -0.72999942
-6.5376964 5.5294948 -0.73000067
8.1806774 -0.55054069 2.0934949
21.535 -3.2782807 -0.013196853
14.645099 3.4994137 -0.32700017
12.328178 -6.223599 -0.32699931
-5.5318089 -6.3618894 0.83760154
21.415257 -7.0999784 -0.72999913
16.902357 -2.1267805 -0.3269996
13.599705 -4.8801723 -0.3269994
0.97626305 -7.082634 -0.72999913
17.204025 -7.57235 -0.32699901
-6.6225815 4.8916845 -0.73000062
0.80637121 0.32817161 -0.32700017
18.393301 4.8335962 0.23965237
-5.2086601 -0.15722135 0.019760381
9.2486687 4.9622388 -0.73000062
6.5688362 0.39034581 -0.23700002
7.1872568 -0.63566482 -0.23699999
-5.9901738 -5.3167839 -0.32699999
2.3025293 -0.067701578 -0.72999996
-3.3702593 6.4984684 0.072999865
16.471304 -3.2522564 0.13758294
-2.7833533 0.29711151 -0.32700026
21.671387 4.2129478 0.37918004
19.370514 3.6786866 -0.32700008
14.290896 4.4269519 -0.7300005
-4.0211439 4.6878972 -0.17594711
10.794015 4.8401728 -0.73000062
3.9948754 0.66584718 -0.23700002
10.061997 2.655303 -0.73000026
-6.1559429 -1.7074741 -0.32700014
-3.2593007 -4.758287 -0.14649807
-5.5167866 -7.4999995 0.27980533
-3.2593009 -7.4751334 -0.071105137
12.886138 -5.6362257 -0.32699937
12.697018 -4.9502277 -0.32699943
10.297397 5.5897574 -0.32700053
3.6124907 6.9072342 -0.73000085
16.710075 -4.2488818 -0.32699996
6.4927673 -5.5936217 -0.32699946
17.579494 6.7558298 -0.32700086
8.4864779 0.76455784 -0.32700005
9.732337 -0.23272419 -0.72999996
-5.5601773 -7.0081997 -0.3269991
2.3070593 -2.047914 -0.3269999
19.881432 1.4743108 -0.32699987
1.4731565 -6.3600998 -0.23513427
7.5188742 -7.0160503 -0.32699913
-2.607909 -6.6542969 -0.72999918
19.557941 1.6889405 -0.7300002
1.2675874 7.5180011 0.079445042
19.505203 4.6537027 -0.32700032
5.4788666 -6.297502 -0.32699928
-0.79436493 0.80210572 -0.73000014
-6.6821017 -4.368 1.1250986
14.700548 0.41240978 -0.3269999
6.7768154 7.4520054 -0.32700101
21.404987 6.9899988 0.61234242
21.240906 -5.8334503 -0.044627681
9.4235334 -7.3003969 -0.32699919
3.6689751 1.4936663 0.273
-6.4829998 5.1451197 -0.26876003
1.9827394 6.2226453 -0.32699999
7.3210793 -0.37200275 -0.32699996
12.624834 -1.1093554 -0.27960661
7.1982942 -3.0565367 -0.237
-6.6339755 -5.1599989 0.072317638
18.383451 2.0578153 -0.32699996
11.416649 -1.2421131 -0.72999978
21.399687 6.75 -0.065058313
-5.4158344 7.3574719 0.2077705
5.4290943 6.3633757 -0.73000073
21.517 -7.0323067 0.16585995
9.9594889 6.5732079 -0.3270008
20.194702 0.085545912 0.18280366
0.13439387 6.3244576 -0.32700077
-4.9859858 -5.989881 -0.32699937
4.6433101 1.4609817 -0.73000014
-6.8523169 1.3696992 -0.32700026
15.104403 6.7536821 -0.0054821242
19.939611 2.5120904 -0.73000026
8.151885 -0.43398693 -0.32699999
-0.24100414 3.1484497 -0.32700044
20.006077 -0.016501 0.40932113
10.026876 5.5512605 -0.32700053
7.8030138 0.12826791 1.9663391
15.24276 6.3600001 0.11864414
-6.4011497 0.751899 -0.32700038
-5.4088292 5.4409947 0.033945996
5.657403 -5.3150506 -0.32699955
-0.99979633 4.929667 0.072999999
14.141875 5.3474121 -0.73000067
17.410093 -3.3488762 -0.13377698
2.0343523 -1.0032662 -0.32700002
16.025803 6.6860838 -0.3270008
8.1239452 7.1967888 -0.32700095
10.385319 -4.2268057 -0.72999948
-1.8858734 4.0454726 0.072999999
-3.3255563 6.3137598 -0.32700068
10.712749 4.3462377 -0.32700032
22.017 7.2619166 -0.67473388
16.755119 3.3319707 -0.32699999
3.5803108 2.4161701 -0.73000026
-2.8461421 -6.9825044 -0.3269991
11.249178 -1.3361179 -0.13653988
21.136316 -5.960258 -0.30222663
10.033539 2.7892141 -0.73000038
-3.2593012 -6.0537915 0.60963833
0.89244676 2.8372195 -0.32700041
11.890259 0.045463324 -0.3269999
0.91649878 6.541894 -0.029615827
4.931077 -1.8694463 -0.25642985
12.026332 0.4803437 0.24114749
13.016498 -7.4709272 -0.72999907
-3.3075335 5.0211458 -0.73000056
21.125893 5.6700001 0.93269402
21.695381 3.4406321 -0.3270005
13.708129 4.8146839 0.61799997
-3.5800064 3.2559626 -0.032594919
4.2927685 -6.360528 -0.177
-3.2451282 -6.5641851 -0.72999918
7.9154458 0.47207621 -0.32699999
1.8538313 -4.8099995 -0.067236036
20.621407 8 -0.63980931
14.984022 -5.4089155 -0.32700002
11.605124 -4.1128802 -0.32699955
9.4445381 6.3101897 -0.73000079
21.123753 -2.795001 0.83674103
7.5860209 0.30716079 2.1154253
3.4493694 0.85884351 -0.32699999
20.547001 6.3073196 1.5705849
10.755417 2.6109381 -0.32699999
12.095703 -7.5 -0.12329786
21.167135 -5.2394686 -0.32699925
21.690187 4.3452806 -0.32700062
20.815746 7.5000005 -0.31691644
7.9308963 -3.6644461 -0.23699999
11.467556 -6.950603 -0.32699913
18.696394 -7.9194374 -0.32699901
12.746264 0.11595839 0.213
-2.0930688 -4.98241 -0.3269996
-6.4829998 7.0755057 -0.013224706
18.800426 -7.0746608 -0.32699916
-4.670526 0.43090057 0.85918117
-4.5370765 5.0659933 -0.73000062
-6.1868773 -6.7912598 -0.21539263
-0.15688157 4.8991251 -0.32700065
21.841118 5.7392349 -0.73000067
12.339027 -0.082334027 0.257
13.50506 3.0728445 -0.73000038
8.3996429 -0.74546432 0.87396157
20.340755 3.5950553 -0.73000044
18.358145 -6.6513152 -0.32699925
16.667229 4.1716089 0.208
4.7683821 6.7505779 -0.32700035
-2.4397047 -5.2203703 -0.067208558
20.04339 4.9365335 -0.32700038
6.8571405 -4.3558455 -0.3269996
17.037621 -2.9929013 -0.32699952
12.926942 -5.8740077 -0.32699999
6.7061682 1.66607 -0.23699999
21.286201 -3.5124784 -0.72999954
-4.062593 -1.1206516 -0.32700014
10.3973 7.1155596 -0.32700089
4.8209128 7.2277212 -0.17700084
3.6541481 6.9940052 -0.73000085
13.468131 -6.5117927 -0.17699994
14.868721 3.8437991 -0.32699999
20.386429 7.1274729 -0.32700101
5.8413973 -7.0910521 -0.32699913
-3.7082379 7.1906848 0.15512443
10.482262 -4.5077209 0.2327749
-2.1372552 3.726686 0.0037345923
16.194389 -6.6523337 -0.32699957
20.67897 4.3278079 0.40924701
3.2936578 -7.4638901 -0.72999907
1.5163784 3.0199566 -0.73000038
10.811979 0.78089237 -0.73000008
9.8225317 -0.98230571 -0.23699999
4.1572371 7.1522465 -0.73000085
21.190899 6.7221475 -0.32699999
19.634853 -0.29795852 0.47020459
18.097013 -6.3215508 0.072999999
19.914917 7.5000005 -0.036263932
0.92918015 5.527966 -0.32699999
1.6113249 -8 -0.66154748
11.777555 -3.3702803 0.36976188
-2.565012 -2.3577294 -0.32699999
8.7851982 -4.7081318 -0.72999942
12.475887 1.0154138 0.30236238
22.503021 4.3994169 1.2029999
16.470037 6.324472 -0.32700074
1.5096717 7.6807251 -0.32700101
9.0524683 1.5912609 -0.32700014
7.7181683 -0.99310249 -0.32699999
-5.659708 3.7725127 -0.32700062
8.2412596 -0.8740263 -0.7299999
-4.4718752 1.7597704 -0.32705
21.742001 4.2388859 0.091907755
18.710527 -5.1230078 0.20800035
9.9630203 0.84347701 -0.23700002
21.366514 5.0549989 0.36719322
-4.4478092 -0.57110173 -0.10879609
0.62755919 -5.8117027 -0.72999924
11.639245 0.58942133 -0.32699996
21.913116 4.1948929 0.1636
-6.5129199 3.7923081 0.44454265
-0.32484719 4.3628249 -0.32699999
5.3933439 6.0851917 -0.23716672
-2.2586558 -3.0504 -0.32699993
15.369131 -5.6974988 -0.3269999
-4.7679873 2.2591753 -0.3270005
-3.2187772 -6.0339217 0.66659498
0.89579248 7.2189078 -0.73000091
-5.533 -6.2266455 1.1850408
3.8498378 7.0614328 -0.73000085
5.4207349 -2.1548543 -0.32699999
4.5396571 3.8579128 -0.32699996
20.712393 -6.9283857 -0.3269991
4.6974144 -5.2390699 0.52363133
10.973567 -2.1762071 -0.32699972
10.278724 -7.9243627 -0.32699901
19.637112 -7.8293533 -0.72999901
-3.975019 -2.1797662 -0.32700005
-6.2614164 -7.4071388 -0.32699904
21.517 -5.3482418 0.067965195
1.7684405 5.6502037 -0.32700065
-0.7794466 -4.9672394 -0.72999942
13.12506 -2.9095101 -0.3269996
11.584734 -8 -0.37371761
7.3182588 6.6740651 -0.32700026
7.0836372 -6.3060236 -0.72999924
19.45293 -0.15514725 0.29888377
5.2880239 4.3854275 -0.7300005
-3.2593009 -4.8269887 -0.20086616
-4.5073533 4.9481082 0.68435562
20.474966 -3.8699999 0.50614208
3.198323 -0.3054373 0.273
18.393301 6.3287897 0.034122035
15.950943 2.9756284 0.0081847459
21.862587 4.2474985 0.465736
0.84586811 -6.8385015 -0.32699916
20.895838 5.6700001 0.40478939
19.627563 1.0098956 -0.32699984
21.324177 4.2919626 0.233
19.055145 -4.5957632 -0.13335112
-5.2147813 -5.1266437 -0.32699957
7.1886578 7.4805841 -0.177001
3.3744302 2.016407 -0.7300002
13.61962 -2.5550253 -0.32699963
-5.8797379 -6.0995536 0.67299998
12.048855 7.4534063 -0.32700101
-1.8229568 -5.9596901 -0.32699943
3.7487605 4.4523821 -0.3270005
4.7303195 1.6467367 -0.32699996
6.0412922 -2.0403929 -0.72999978
-2.38377 5.15763 -0.73000062
11.413857 6.5655665 -0.32700077
0.024590611 -5.1018167 -0.32699999
9.5264378 1.1106956 -0.73000014
10.463055 6.4008904 -0.177
-4.7593479 0.37844175 0.9220013
-4.0462332 5.7872543 0.77299976
9.9434566 -2.6935098 -0.32699996
8.3637409 0.060253695 -0.237
4.8948121 -0.44290423 -0.32699999
20.380344 -6.4827371 -0.32699913
19.562191 -3.3539567 -0.7299996
-3.1593013 -6.9231124 0.44418424
9.5143909 -2.8250146 -0.237
9.9494953 -0.047552407 -0.23700002
1.0045843 -3.0854247 -0.1964425
-4.0437441 -6.8578401 -0.32699916
-0.42580271 -4.8611526 -0.72999942
-0.79182732 6.0030909 0.072999999
4.637682 7.9314065 -0.32700101
10.766663 5.1551514 -0.73000062
17.671732 -5.6066709 0.072999999
18.048594 4.2896538 -0.26503828
12.226163 -7.0232706 -0.17699938
16.494072 -5.5560079 0.072999999
18.293301 4.0636573 -0.27089968
21.436468 5.6871986 0.83760095
15.091117 3.3716261 -0.32699999
-3.2593009 -6.2906256 -0.11043357
2.762763 -5.4695377 -0.32699949
10.597963 -1.7260785 0.22357318
-4.2062674 -0.66368747 -0.3270002
0.92675245 5.5485578 -0.32700068
-5.4436159 5.9509296 0.48539364
18.535036 7.0270257 -0.73000085
11.930042 -0.049776725 0.16319792
-3.159301 -5.5578952 -0.23814504
-2.6539569 0.81622386 -0.32700032
-1.9561627 -3.1855228 -0.32699999
15.957201 -0.61368704 -0.7299999
12.648111 4.7824345 -0.32700032
-5.4919615 -5.6700001 -0.13286453
-2.9321604 -5.9529166 0.073000044
15.07478 6.4189062 -0.32700074
-3.6418746 3.6206198 0.1001296
11.760864 -5.4815774 -0.3269994
-3.159301 -5.5517941 0.28282315
1.0729489 -3.2465177 -0.7299996
21.065895 5.8209658 -0.32700002
12.042983 -0.98878968 0.213
9.9052572 -7.4769058 -0.72999913
-4.7375021 6.8470182 -0.73000085
4.3548131 -3.7653685 -0.72999954
17.127131 6.3141155 -0.73000079
18.324036 -6.4191175 -0.32699919
0.49926275 -4.3530483 -0.32699999
2.8984418 1.8591963 -0.32699999
20.726265 -6.1137114 -0.32699913
9.5638647 7.2431364 -0.32700095
22.017 6.6156497 -0.66080421
11.68539 -3.6036456 -0.24782592
2.306493 -7.9370346 -0.72999907
19.500183 1.7752738 -0.73000014
10.520445 5.0643892 0.90617239
11.782768 -4.9163561 -0.32699946
16.042454 -1.0842028 -0.32699972
-4.6209621 -0.36104962 0.25034338
18.193302 5.2938037 -0.21011679
7.7583723 0.060353301 0.2809394
4.185132 2.8152058 -0.32700035
5.2275329 -6.890069 -0.32699913
-0.41427612 4.7747765 -0.73000062
10.24613 -5.1211386 -0.32699999
-3.7692978 -4.8391471 -0.72999936
9.7635727 -6.9277344 -0.32699913
0.81801987 4.1174483 -0.32700053
9.8095589 -3.0298479 0.39228401
5.0690842 3.0801158 -0.73000038
1.7227349 -1.7713549 -0.32699996
14.4722 -5.756556 -0.32699999
19.912685 -5.2926922 -0.32699925
10.87225 1.2721441 -0.73000014
7.5296221 -0.47425762 2.1515245
10.577952 0.31549495 -0.24039783
-5.7148209 -6.9899988 1.2737131
17.981274 -5.4026637 0.072999999
5.8816643 0.4346858 -0.32699999
21.843094 -3.045428 -0.32699957
-6.0171747 3.7550011 0.42926189
15.189931 2.5775955 -0.32700008
18.104237 -2.6035652 -0.32699952
21.739204 3.5801685 -0.32700002
-5.5983114 7.5 -0.039378025
-1.6384175 -1.9222385 -0.32700002
-0.81870747 3.4461596 -0.31133327
5.9885817 6.7393427 -0.32700083
4.3193474 -2.1757503 -0.32699999
-0.7975319 -6.963624 -0.32699916
-5.3450379 -6.7762823 1.4922448
12.259266 -1.8492498 -0.32699975
21.783613 3.8549991 0.23239508
5.2973385 2.1639938 -0.73000026
5.9435906 1.4542122 -0.23700002
-4.6044049 0.33990529 0.42828068
7.4460545 1.2193153 -0.32700002
8.8845901 3.3645978 -0.32700029
2.1535435 5.2599435 -0.73000067
-0.61560583 -2.2270544 -0.32699996
0.28790903 -3.8181977 -0.32699981
7.6775227 2.773839 -0.32699999
-5.0987849 1.9419677 -0.32700044
6.1692629 -3.6471813 -0.32699969
12.825391 5.3962955 0.523
6.1211405 5.0116901 -0.3270005
7.3985929 -2.4787579 -0.72999966
-4.8045759 -0.041815042 -0.73000002
-4.5517912 7.2437086 0.77414751
8.9037886 -5.1098108 -0.32699949
21.536825 7.1021228 -0.32700101
22.137447 4.3016772 -0.23100001
15.417042 -6.2679992 -0.32699925
-6.5347958 -1.3820199 -0.32700017
21.90007 5.9255314 -0.32700077
21.719467 3.8339992 -0.093205065
10.923648 7.5 -0.21137986
1.3726835 1.7309306 -0.7300002
10.52176 -0.36985871 -0.237
5.6285448 6.4177632 -0.32700074
7.3047686 -7.0670824 -0.17699935
13.965653 4.8099995 -0.26757181
9.5906439 3.9480028 -0.32700035
17.928946 4.395278 -0.32700026
2.8183079 5.4922433 -0.32699999
14.405766 -1.0705237 -0.7299999
1.8579991 -7.5 0.072816715
-5.753531 -6.9899983 0.14788005
0.8569603 -1.2611449 -0.32700005
4.758234 -1.8073683 -0.32699999
8.8661757 -0.43492281 -0.23699999
13.803928 7.6469607 -0.73000091
2.9088323 6.0530987 -0.21720549
-5.4497614 -2.0707216 -0.32700008
21.787001 5.8732963 1.4707807
16.519249 3.5215263 -0.73000044
19.055145 -7.1600757 0.016213708
20.235231 5.7311225 -0.32700056
20.668962 5.5122547 0.99249119
9.523838 -4.375226 -0.32699955
18.741726 -5.0636196 -0.32699928
8.2337723 -0.85395086 2.1084988
21.751486 6.8419981 0.83759999
16.237743 -3.423974 0.208
6.5467176 -4.7766414 -0.3269996
18.293301 6.1891518 0.26772204
-3.8822825 -2.3670855 -0.32700002
18.393301 6.420886 0.48257256
10.336355 -2.1375833 0.22246046
19.654148 -6.3880825 -0.72999918
6.4752293 -4.550374 -0.3269996
-6.3550663 -5.6700001 0.51299876
6.484355 -0.76991695 -0.23700002
-0.36330101 -5.4990034 -0.20152758
-2.4985073 7.5 -0.31440422
7.7946539 -0.7273739 2.1948142
8.4388075 3.2016301 -0.73000038
-2.8876233 -7.4235716 -0.32699904
17.385174 -6.6256256 -0.3269994
18.536827 -7.8479576 -0.72999901
-6.5009995 0.58621216 0.011536293
12.082077 -0.34379435 -0.32699987
-6.2884922 5.8851824 0.69279611
6.2733507 6.0764704 -0.177
